120.2167	25.0705	6.82000017166
120.388075	25.0705	6.81444072723
120.55945	25.0705	6.82790470123
120.730825	25.0705	6.82147502899
120.9022	25.0705	6.84945821762
121.073575	25.0705	6.71170043945
121.24495	25.0705	6.30999994278
121.416325	25.0705	6.56793642044
121.5877	25.0705	6.88000011444
120.2167	24.8999166667	6.81131410599
120.388075	24.8999166667	6.810754776
120.55945	24.8999166667	6.82733297348
120.730825	24.8999166667	6.86798906326
120.9022	24.8999166667	7.059633255
121.073575	24.8999166667	7.16717767715
121.24495	24.8999166667	6.9610543251
121.416325	24.8999166667	6.70954799652
121.5877	24.8999166667	6.57310771942
120.2167	24.7293333333	6.82139730453
120.388075	24.7293333333	6.76491737366
120.55945	24.7293333333	6.77746534348
120.730825	24.7293333333	6.80676603317
120.9022	24.7293333333	7.16611528397
121.073575	24.7293333333	7.47346639633
121.24495	24.7293333333	7.26389932632
121.416325	24.7293333333	6.60542631149
121.5877	24.7293333333	6.1849656105
120.2167	24.55875	6.79144287109
120.388075	24.55875	6.70412921906
120.55945	24.55875	6.64393997192
120.730825	24.55875	6.74162006378
120.9022	24.55875	7.01629543304
121.073575	24.55875	7.00470924377
121.24495	24.55875	6.08124113083
121.416325	24.55875	6.02754402161
121.5877	24.55875	5.96074056625
120.2167	24.3881666667	6.81125450134
120.388075	24.3881666667	6.78415679932
120.55945	24.3881666667	6.77463912964
120.730825	24.3881666667	6.98276329041
120.9022	24.3881666667	6.92733812332
121.073575	24.3881666667	6.59942817688
121.24495	24.3881666667	5.94186115265
121.416325	24.3881666667	6.2006688118
121.5877	24.3881666667	6.73671865463
120.2167	24.2175833333	6.86999988556
120.388075	24.2175833333	6.82247066498
120.55945	24.2175833333	6.86589479446
120.730825	24.2175833333	7.28359794617
120.9022	24.2175833333	7.02455615997
121.073575	24.2175833333	6.4987578392
121.24495	24.2175833333	5.82999992371
121.416325	24.2175833333	6.56522846222
121.5877	24.2175833333	7.78000020981
120.2167	24.047	6.70724105835
120.388075	24.047	6.82102632523
120.55945	24.047	6.94094562531
120.730825	24.047	7.16751861572
120.9022	24.047	6.90834617615
121.073575	24.047	6.44350576401
121.24495	24.047	6.00628376007
121.416325	24.047	6.67860221863
121.5877	24.047	7.72117996216
120.2167	23.8764166667	6.44438171387
120.388075	23.8764166667	6.74236440659
120.55945	23.8764166667	7.06726169586
120.730825	23.8764166667	7.09104585648
120.9022	23.8764166667	6.89927339554
121.073575	23.8764166667	6.52389144897
121.24495	23.8764166667	5.98808097839
121.416325	23.8764166667	6.73053407669
121.5877	23.8764166667	7.71875190735
120.2167	23.7058333333	6.20031738281
120.388075	23.7058333333	6.72318935394
120.55945	23.7058333333	7.10146427155
120.730825	23.7058333333	7.21739292145
120.9022	23.7058333333	6.991502285
121.073575	23.7058333333	6.71638727188
121.24495	23.7058333333	6.54124069214
121.416325	23.7058333333	7.01348638535
121.5877	23.7058333333	7.80023193359
120.2167	23.53525	6.66152906418
120.388075	23.53525	6.8038725853
120.55945	23.53525	6.86181211472
120.730825	23.53525	6.90063285828
120.9022	23.53525	6.89093255997
121.073575	23.53525	6.82169246674
121.24495	23.53525	6.76204490662
121.416325	23.53525	7.02496910095
121.5877	23.53525	7.44276428223
120.2167	23.3646666667	7.09537887573
120.388075	23.3646666667	6.90146875381
120.55945	23.3646666667	6.66434621811
120.730825	23.3646666667	6.51682186127
120.9022	23.3646666667	6.59999370575
121.073575	23.3646666667	6.81503152847
121.24495	23.3646666667	6.76935052872
121.416325	23.3646666667	6.93386554718
121.5877	23.3646666667	7.12182474136
120.2167	23.1940833333	6.86409425735
120.388075	23.1940833333	6.92255067825
120.55945	23.1940833333	6.88635110855
120.730825	23.1940833333	6.17308139801
120.9022	23.1940833333	6.29078483582
121.073575	23.1940833333	6.50105237961
121.24495	23.1940833333	6.76344013214
121.416325	23.1940833333	6.9080748558
121.5877	23.1940833333	7.08617591858
120.2167	23.0235	6.12923669815
120.388075	23.0235	6.68559885025
120.55945	23.0235	6.88073539734
120.730825	23.0235	6.61107730865
120.9022	23.0235	6.35583400726
121.073575	23.0235	6.30467414856
121.24495	23.0235	6.42135667801
121.416325	23.0235	6.78232860565
121.5877	23.0235	6.82528066635
120.2167	22.8529166667	6.28999996185
120.388075	22.8529166667	6.86262369156
120.55945	22.8529166667	7.49904918671
120.730825	22.8529166667	7.24706268311
120.9022	22.8529166667	6.5737361908
121.073575	22.8529166667	6.36230516434
121.24495	22.8529166667	7.28999996185
121.416325	22.8529166667	7.35526704788
121.5877	22.8529166667	7.23736047745
120.2167	22.6823333333	6.57999992371
120.388075	22.6823333333	6.55758619308
120.55945	22.6823333333	6.47050046921
120.730825	22.6823333333	6.37651395798
120.9022	22.6823333333	6.43097829819
121.073575	22.6823333333	6.71027517319
121.24495	22.6823333333	7.9197678566
121.416325	22.6823333333	7.69593429565
121.5877	22.6823333333	7.21104955673
120.2167	22.51175	6.64089488983
120.388075	22.51175	6.34638881683
120.55945	22.51175	6.10404109955
120.730825	22.51175	6.32610368729
120.9022	22.51175	6.55907869339
121.073575	22.51175	6.95405578613
121.24495	22.51175	7.73940038681
121.416325	22.51175	7.61651849747
121.5877	22.51175	7.17051362991
120.2167	22.3411666667	6.77908611298
120.388075	22.3411666667	6.29406023026
120.55945	22.3411666667	5.93470048904
120.730825	22.3411666667	6.56998872757
120.9022	22.3411666667	6.7240819931
121.073575	22.3411666667	6.95864772797
121.24495	22.3411666667	7.6442399025
121.416325	22.3411666667	7.43423128128
121.5877	22.3411666667	6.92384910583
120.2167	22.1705833333	6.75960826874
120.388075	22.1705833333	6.50510835648
120.55945	22.1705833333	6.36289024353
120.730825	22.1705833333	6.55239152908
120.9022	22.1705833333	6.78145122528
121.073575	22.1705833333	7.06455564499
121.24495	22.1705833333	7.40807390213
121.416325	22.1705833333	7.27673912048
121.5877	22.1705833333	6.93690776825
120.2167	22	6.82000017166
120.388075	22	6.77408409119
120.55945	22	6.7844414711
120.730825	22	6.52058839798
120.9022	22	6.7834854126
121.073575	22	7.12416028976
121.24495	22	7.30916261673
121.416325	22	7.17294406891
121.5877	22	6.89195966721
