120.2167	25.0705	7.84999990463
120.388075	25.0705	7.84334421158
120.55945	25.0705	7.84634828568
120.730825	25.0705	7.8510966301
120.9022	25.0705	7.83934593201
121.073575	25.0705	7.84399032593
121.24495	25.0705	7.88999986649
121.416325	25.0705	7.62129640579
121.5877	25.0705	7.40000009537
120.2167	24.8999166667	7.84015989304
120.388075	24.8999166667	7.85589456558
120.55945	24.8999166667	7.84122896194
120.730825	24.8999166667	7.83455514908
120.9022	24.8999166667	7.79373884201
121.073575	24.8999166667	7.67978525162
121.24495	24.8999166667	7.499335289
121.416325	24.8999166667	7.61674261093
121.5877	24.8999166667	7.8139796257
120.2167	24.7293333333	7.8500418663
120.388075	24.7293333333	7.86099624634
120.55945	24.7293333333	7.84619092941
120.730825	24.7293333333	7.85535669327
120.9022	24.7293333333	7.78444576263
121.073575	24.7293333333	7.64029979706
121.24495	24.7293333333	7.18685770035
121.416325	24.7293333333	7.7258014679
121.5877	24.7293333333	8.35641479492
120.2167	24.55875	7.85361289978
120.388075	24.55875	7.83400297165
120.55945	24.55875	7.85492563248
120.730825	24.55875	7.84955739975
120.9022	24.55875	7.80291938782
121.073575	24.55875	7.71879053116
121.24495	24.55875	7.68472480774
121.416325	24.55875	8.14601802826
121.5877	24.55875	8.82181358337
120.2167	24.3881666667	7.82652235031
120.388075	24.3881666667	7.84240722656
120.55945	24.3881666667	7.86280441284
120.730825	24.3881666667	7.86135339737
120.9022	24.3881666667	7.91191768646
121.073575	24.3881666667	7.97177267075
121.24495	24.3881666667	8.03687572479
121.416325	24.3881666667	8.37300109863
121.5877	24.3881666667	8.87062358856
120.2167	24.2175833333	7.84999990463
120.388075	24.2175833333	7.87031841278
120.55945	24.2175833333	7.84796237946
120.730825	24.2175833333	7.84851455688
120.9022	24.2175833333	7.99276018143
121.073575	24.2175833333	8.15644741058
121.24495	24.2175833333	8.14999961853
121.416325	24.2175833333	8.35751152039
121.5877	24.2175833333	8.72999954224
120.2167	24.047	7.88442897797
120.388075	24.047	7.85531568527
120.55945	24.047	7.83974695206
120.730825	24.047	7.86152076721
120.9022	24.047	7.98922729492
121.073575	24.047	8.04031085968
121.24495	24.047	7.99375104904
121.416325	24.047	8.02760028839
121.5877	24.047	8.06955337524
120.2167	23.8764166667	7.85257005692
120.388075	23.8764166667	7.83453130722
120.55945	23.8764166667	7.83773899078
120.730825	23.8764166667	7.86113166809
120.9022	23.8764166667	7.92005252838
121.073575	23.8764166667	7.97228002548
121.24495	23.8764166667	7.84776878357
121.416325	23.8764166667	7.74597263336
121.5877	23.8764166667	7.51349163055
120.2167	23.7058333333	7.84697246552
120.388075	23.7058333333	7.82131576538
120.55945	23.7058333333	7.85668230057
120.730825	23.7058333333	7.84338712692
120.9022	23.7058333333	7.98179340363
121.073575	23.7058333333	8.13105487823
121.24495	23.7058333333	8.01985263824
121.416325	23.7058333333	7.88263463974
121.5877	23.7058333333	7.83073997498
120.2167	23.53525	7.82485389709
120.388075	23.53525	7.851521492
120.55945	23.53525	7.8429775238
120.730825	23.53525	7.86002874374
120.9022	23.53525	7.99186468124
121.073575	23.53525	8.08011722565
121.24495	23.53525	7.97726869583
121.416325	23.53525	7.90709257126
121.5877	23.53525	7.8781375885
120.2167	23.3646666667	7.84321260452
120.388075	23.3646666667	7.8520359993
120.55945	23.3646666667	7.8441567421
120.730825	23.3646666667	7.8556265831
120.9022	23.3646666667	7.99102067947
121.073575	23.3646666667	8.04984283447
121.24495	23.3646666667	7.90406847
121.416325	23.3646666667	7.90340137482
121.5877	23.3646666667	7.87231731415
120.2167	23.1940833333	7.84944009781
120.388075	23.1940833333	7.85371208191
120.55945	23.1940833333	7.85430049896
120.730825	23.1940833333	7.88665103912
120.9022	23.1940833333	7.96046543121
121.073575	23.1940833333	8.07817268372
121.24495	23.1940833333	8.05051517487
121.416325	23.1940833333	8.04344654083
121.5877	23.1940833333	7.89443159103
120.2167	23.0235	7.85035562515
120.388075	23.0235	7.85881757736
120.55945	23.0235	7.85768890381
120.730825	23.0235	7.85911941528
120.9022	23.0235	7.92728948593
121.073575	23.0235	8.05254840851
121.24495	23.0235	8.72613811493
121.416325	23.0235	8.36890888214
121.5877	23.0235	8.08200359344
120.2167	22.8529166667	7.86000013351
120.388075	22.8529166667	7.83366012573
120.55945	22.8529166667	7.85465145111
120.730825	22.8529166667	8.09811306
120.9022	22.8529166667	7.89350652695
121.073575	22.8529166667	7.73554897308
121.24495	22.8529166667	7.88000011444
121.416325	22.8529166667	7.98646640778
121.5877	22.8529166667	7.89594268799
120.2167	22.6823333333	7.84000015259
120.388075	22.6823333333	7.79276323318
120.55945	22.6823333333	7.84927225113
120.730825	22.6823333333	8.09551239014
120.9022	22.6823333333	7.89132022858
121.073575	22.6823333333	7.72766304016
121.24495	22.6823333333	7.91990232468
121.416325	22.6823333333	7.85272789001
121.5877	22.6823333333	7.68184328079
120.2167	22.51175	7.82784795761
120.388075	22.51175	7.8103094101
120.55945	22.51175	7.8299779892
120.730825	22.51175	7.86030817032
120.9022	22.51175	7.86966753006
121.073575	22.51175	7.91394805908
121.24495	22.51175	7.90477800369
121.416325	22.51175	7.83801698685
121.5877	22.51175	7.74552059174
120.2167	22.3411666667	7.84565734863
120.388075	22.3411666667	7.83356904984
120.55945	22.3411666667	7.79869842529
120.730825	22.3411666667	7.6552491188
120.9022	22.3411666667	7.85285234451
121.073575	22.3411666667	8.07833480835
121.24495	22.3411666667	7.89209842682
121.416325	22.3411666667	7.85668706894
121.5877	22.3411666667	7.83853292465
120.2167	22.1705833333	7.84253168106
120.388075	22.1705833333	7.83524942398
120.55945	22.1705833333	7.8022518158
120.730825	22.1705833333	7.74613809586
120.9022	22.1705833333	7.79747152328
121.073575	22.1705833333	7.87349271774
121.24495	22.1705833333	7.89413642883
121.416325	22.1705833333	7.87053442001
121.5877	22.1705833333	7.83195209503
120.2167	22	7.84999990463
120.388075	22	7.85135221481
120.55945	22	7.84924936295
120.730825	22	7.8564453125
120.9022	22	7.7204618454
121.073575	22	7.61810970306
121.24495	22	7.88595104218
121.416325	22	7.87012338638
121.5877	22	7.7858042717
