120.2167	25.0705	4.26000022888
120.388075	25.0705	4.27753686905
120.55945	25.0705	4.25968170166
120.730825	25.0705	4.2624578476
120.9022	25.0705	4.22782421112
121.073575	25.0705	4.25824975967
121.24495	25.0705	4.11000013351
121.416325	25.0705	4.57168769836
121.5877	25.0705	5.07000017166
120.2167	24.8999166667	4.26547002792
120.388075	24.8999166667	4.30230617523
120.55945	24.8999166667	4.27785253525
120.730825	24.8999166667	4.23580312729
120.9022	24.8999166667	4.1063747406
121.073575	24.8999166667	4.14971256256
121.24495	24.8999166667	4.51328086853
121.416325	24.8999166667	4.67968511581
121.5877	24.8999166667	4.77000284195
120.2167	24.7293333333	4.2696185112
120.388075	24.7293333333	4.2894077301
120.55945	24.7293333333	4.24655294418
120.730825	24.7293333333	4.188372612
120.9022	24.7293333333	3.89693427086
121.073575	24.7293333333	3.85387396812
121.24495	24.7293333333	4.81140947342
121.416325	24.7293333333	4.73286104202
121.5877	24.7293333333	4.52867698669
120.2167	24.55875	4.26706695557
120.388075	24.55875	4.21803188324
120.55945	24.55875	4.11060571671
120.730825	24.55875	3.70443224907
120.9022	24.55875	3.66572594643
121.073575	24.55875	3.71391534805
121.24495	24.55875	4.03791952133
121.416325	24.55875	4.5939207077
121.5877	24.55875	4.87672710419
120.2167	24.3881666667	4.23957967758
120.388075	24.3881666667	4.18250465393
120.55945	24.3881666667	4.0330324173
120.730825	24.3881666667	3.66465234756
120.9022	24.3881666667	3.84756660461
121.073575	24.3881666667	4.2230091095
121.24495	24.3881666667	4.67706346512
121.416325	24.3881666667	4.98307466507
121.5877	24.3881666667	5.226313591
120.2167	24.2175833333	4.26000022888
120.388075	24.2175833333	4.21188402176
120.55945	24.2175833333	4.10277605057
120.730825	24.2175833333	3.62086176872
120.9022	24.2175833333	4.12516498566
121.073575	24.2175833333	4.78631734848
121.24495	24.2175833333	5.38000011444
121.416325	24.2175833333	5.24620246887
121.5877	24.2175833333	5.28000020981
120.2167	24.047	4.38041353226
120.388075	24.047	4.12158727646
120.55945	24.047	3.99044847488
120.730825	24.047	4.05911016464
120.9022	24.047	4.4734544754
121.073575	24.047	4.85583639145
121.24495	24.047	4.87834882736
121.416325	24.047	4.59930181503
121.5877	24.047	4.28585195541
120.2167	23.8764166667	4.45352363586
120.388075	23.8764166667	3.97212004662
120.55945	23.8764166667	3.79341340065
120.730825	23.8764166667	4.3646903038
120.9022	23.8764166667	4.63018894196
121.073575	23.8764166667	4.79944705963
121.24495	23.8764166667	4.1803817749
121.416325	23.8764166667	3.8781940937
121.5877	23.8764166667	3.40934038162
120.2167	23.7058333333	4.35152292252
120.388075	23.7058333333	3.79286670685
120.55945	23.7058333333	3.55785751343
120.730825	23.7058333333	4.5633058548
120.9022	23.7058333333	4.54157304764
121.073575	23.7058333333	4.16915893555
121.24495	23.7058333333	3.49685430527
121.416325	23.7058333333	3.99768304825
121.5877	23.7058333333	4.62448453903
120.2167	23.53525	4.36825799942
120.388075	23.53525	3.88700985909
120.55945	23.53525	3.63794994354
120.730825	23.53525	4.28387975693
120.9022	23.53525	4.47044038773
121.073575	23.53525	4.36683416367
121.24495	23.53525	4.28891134262
121.416325	23.53525	4.48482704163
121.5877	23.53525	4.87337446213
120.2167	23.3646666667	4.57922029495
120.388075	23.3646666667	3.99502825737
120.55945	23.3646666667	3.65611886978
120.730825	23.3646666667	4.33267831802
120.9022	23.3646666667	4.57680606842
121.073575	23.3646666667	4.56135988235
121.24495	23.3646666667	4.8939871788
121.416325	23.3646666667	4.66885471344
121.5877	23.3646666667	4.74860715866
120.2167	23.1940833333	4.04939222336
120.388075	23.1940833333	4.11740398407
120.55945	23.1940833333	4.52754878998
120.730825	23.1940833333	4.90371847153
120.9022	23.1940833333	4.65646600723
121.073575	23.1940833333	4.15901470184
121.24495	23.1940833333	3.8566570282
121.416325	23.1940833333	3.9309425354
121.5877	23.1940833333	3.93731188774
120.2167	23.0235	3.37191534042
120.388075	23.0235	3.73951077461
120.55945	23.0235	4.27795934677
120.730825	23.0235	5.18857288361
120.9022	23.0235	4.81438779831
121.073575	23.0235	4.02955007553
121.24495	23.0235	3.4569671154
121.416325	23.0235	3.64465475082
121.5877	23.0235	3.8601937294
120.2167	22.8529166667	3.77999973297
120.388075	22.8529166667	3.50208806992
120.55945	22.8529166667	3.58671355247
120.730825	22.8529166667	5.20587682724
120.9022	22.8529166667	4.89227056503
121.073575	22.8529166667	4.24312353134
121.24495	22.8529166667	3.80999970436
121.416325	22.8529166667	3.86084651947
121.5877	22.8529166667	4.26742601395
120.2167	22.6823333333	3.51999998093
120.388075	22.6823333333	3.41015577316
120.55945	22.6823333333	3.54100489616
120.730825	22.6823333333	5.1510887146
120.9022	22.6823333333	4.53343343735
121.073575	22.6823333333	3.41229939461
121.24495	22.6823333333	3.26660370827
121.416325	22.6823333333	3.68200159073
121.5877	22.6823333333	4.12569141388
120.2167	22.51175	3.43381810188
120.388075	22.51175	3.87836027145
120.55945	22.51175	4.45207452774
120.730825	22.51175	5.05059528351
120.9022	22.51175	4.45114278793
121.073575	22.51175	3.63684558868
121.24495	22.51175	3.63274073601
121.416325	22.51175	3.84201002121
121.5877	22.51175	4.07094430923
120.2167	22.3411666667	3.45169639587
120.388075	22.3411666667	4.33829450607
120.55945	22.3411666667	5.23741579056
120.730825	22.3411666667	5.28173160553
120.9022	22.3411666667	4.55669879913
121.073575	22.3411666667	3.85486197472
121.24495	22.3411666667	4.16702461243
121.416325	22.3411666667	4.17619466782
121.5877	22.3411666667	4.22760152817
120.2167	22.1705833333	3.91493415833
120.388075	22.1705833333	4.40495061874
120.55945	22.1705833333	4.83298635483
120.730825	22.1705833333	4.88578224182
120.9022	22.1705833333	4.57178211212
121.073575	22.1705833333	4.2275853157
121.24495	22.1705833333	4.20727491379
121.416325	22.1705833333	4.41042661667
121.5877	22.1705833333	4.70838737488
120.2167	22	4.26000022888
120.388075	22	4.31106758118
120.55945	22	4.28415489197
120.730825	22	4.42948675156
120.9022	22	4.50335741043
121.073575	22	4.43424034119
121.24495	22	4.08959770203
121.416325	22	4.58651733398
121.5877	22	5.27348661423
