120.2167	25.0705	7.5
120.388075	25.0705	7.49887037277
120.55945	25.0705	7.50486564636
120.730825	25.0705	7.49969577789
120.9022	25.0705	7.51628351212
121.073575	25.0705	7.45270442963
121.24495	25.0705	7.19999980927
121.416325	25.0705	6.97754859924
121.5877	25.0705	6.63999986649
120.2167	24.8999166667	7.5027513504
120.388075	24.8999166667	7.48970937729
120.55945	24.8999166667	7.49709558487
120.730825	24.8999166667	7.51538658142
120.9022	24.8999166667	7.58387088776
121.073575	24.8999166667	7.59973096848
121.24495	24.8999166667	7.54140901566
121.416325	24.8999166667	7.47131252289
121.5877	24.8999166667	7.48035144806
120.2167	24.7293333333	7.50497770309
120.388075	24.7293333333	7.44177246094
120.55945	24.7293333333	7.47650337219
120.730825	24.7293333333	7.50560331345
120.9022	24.7293333333	7.65217542648
121.073575	24.7293333333	7.69652080536
121.24495	24.7293333333	7.65722513199
121.416325	24.7293333333	7.71200466156
121.5877	24.7293333333	8.111992836
120.2167	24.55875	7.48019075394
120.388075	24.55875	7.37887859344
120.55945	24.55875	7.39287948608
120.730825	24.55875	7.55907678604
120.9022	24.55875	7.78643226624
121.073575	24.55875	7.74336576462
121.24495	24.55875	6.85014724731
121.416325	24.55875	7.2983751297
121.5877	24.55875	7.94612789154
120.2167	24.3881666667	7.31025123596
120.388075	24.3881666667	7.33182954788
120.55945	24.3881666667	7.41490602493
120.730825	24.3881666667	7.83361673355
120.9022	24.3881666667	7.9115524292
121.073575	24.3881666667	7.62000703812
121.24495	24.3881666667	6.76676702499
121.416325	24.3881666667	7.25449419022
121.5877	24.3881666667	8.17306137085
120.2167	24.2175833333	7.28999996185
120.388075	24.2175833333	7.25244951248
120.55945	24.2175833333	7.34242105484
120.730825	24.2175833333	8.13432407379
120.9022	24.2175833333	8.08355903625
121.073575	24.2175833333	7.67510032654
121.24495	24.2175833333	6.44999980927
121.416325	24.2175833333	7.26308107376
121.5877	24.2175833333	8.60000038147
120.2167	24.047	7.52751302719
120.388075	24.047	7.40142679214
120.55945	24.047	7.40797901154
120.730825	24.047	7.93640995026
120.9022	24.047	7.6921749115
121.073575	24.047	7.17677307129
121.24495	24.047	6.70501089096
121.416325	24.047	7.20009851456
121.5877	24.047	7.95636224747
120.2167	23.8764166667	7.82157325745
120.388075	23.8764166667	7.53452920914
120.55945	23.8764166667	7.43698978424
120.730825	23.8764166667	7.83091449738
120.9022	23.8764166667	7.37439155579
121.073575	23.8764166667	6.79162597656
121.24495	23.8764166667	6.89164590836
121.416325	23.8764166667	7.24570941925
121.5877	23.8764166667	7.52594137192
120.2167	23.7058333333	7.82664394379
120.388075	23.7058333333	7.71580028534
120.55945	23.7058333333	7.67836952209
120.730825	23.7058333333	7.61708021164
120.9022	23.7058333333	7.22862625122
121.073575	23.7058333333	6.92255735397
121.24495	23.7058333333	7.6855340004
121.416325	23.7058333333	7.71063089371
121.5877	23.7058333333	7.86517906189
120.2167	23.53525	7.60603189468
120.388075	23.53525	7.59802389145
120.55945	23.53525	7.50963544846
120.730825	23.53525	7.32953119278
120.9022	23.53525	7.22012376785
121.073575	23.53525	7.17297935486
121.24495	23.53525	7.38841342926
121.416325	23.53525	7.55707550049
121.5877	23.53525	7.71118783951
120.2167	23.3646666667	7.43792724609
120.388075	23.3646666667	7.60653066635
120.55945	23.3646666667	7.51795911789
120.730825	23.3646666667	7.20707941055
120.9022	23.3646666667	7.18971681595
121.073575	23.3646666667	7.27396535873
121.24495	23.3646666667	7.0286026001
121.416325	23.3646666667	7.33369874954
121.5877	23.3646666667	7.50220060349
120.2167	23.1940833333	7.73954916
120.388075	23.1940833333	8.00651550293
120.55945	23.1940833333	8.23781299591
120.730825	23.1940833333	7.8350610733
120.9022	23.1940833333	7.23660421371
121.073575	23.1940833333	6.88909339905
121.24495	23.1940833333	7.4348077774
121.416325	23.1940833333	7.52753973007
121.5877	23.1940833333	7.6140165329
120.2167	23.0235	7.5534157753
120.388075	23.0235	7.96858549118
120.55945	23.0235	8.12759113312
120.730825	23.0235	7.66504001617
120.9022	23.0235	7.12869882584
121.073575	23.0235	6.86032390594
121.24495	23.0235	7.33174467087
121.416325	23.0235	7.46793746948
121.5877	23.0235	7.57514953613
120.2167	22.8529166667	7.5
120.388075	22.8529166667	7.97260332108
120.55945	22.8529166667	8.31217193604
120.730825	22.8529166667	7.95599603653
120.9022	22.8529166667	7.13765382767
121.073575	22.8529166667	6.63892555237
121.24495	22.8529166667	6.76999998093
121.416325	22.8529166667	7.21475124359
121.5877	22.8529166667	7.38542985916
120.2167	22.6823333333	7.42999982834
120.388075	22.6823333333	7.8825507164
120.55945	22.6823333333	8.11974620819
120.730825	22.6823333333	7.53647375107
120.9022	22.6823333333	7.05384492874
121.073575	22.6823333333	6.83429384232
121.24495	22.6823333333	7.72374200821
121.416325	22.6823333333	7.51180505753
121.5877	22.6823333333	7.08394956589
120.2167	22.51175	7.49708557129
120.388075	22.51175	7.74970769882
120.55945	22.51175	7.77084779739
120.730825	22.51175	7.28310251236
120.9022	22.51175	7.27991199493
121.073575	22.51175	7.56843328476
121.24495	22.51175	7.9798412323
121.416325	22.51175	7.78461790085
121.5877	22.51175	7.40853834152
120.2167	22.3411666667	7.50662517548
120.388075	22.3411666667	7.6566028595
120.55945	22.3411666667	7.63728666306
120.730825	22.3411666667	7.02210378647
120.9022	22.3411666667	7.46331834793
121.073575	22.3411666667	8.12760162354
121.24495	22.3411666667	8.20646190643
121.416325	22.3411666667	7.97552871704
121.5877	22.3411666667	7.6521229744
120.2167	22.1705833333	7.51025772095
120.388075	22.1705833333	7.55804347992
120.55945	22.1705833333	7.51242733002
120.730825	22.1705833333	7.30398464203
120.9022	22.1705833333	7.51481628418
121.073575	22.1705833333	7.88305568695
121.24495	22.1705833333	8.11983966827
121.416325	22.1705833333	7.97404623032
121.5877	22.1705833333	7.68044471741
120.2167	22	7.5
120.388075	22	7.50622606277
120.55945	22	7.4885392189
120.730825	22	7.50501489639
120.9022	22	7.454205513
121.073575	22	7.5039973259
121.24495	22	8.01847362518
121.416325	22	7.89224338531
121.5877	22	7.52872419357
