120.2167	25.0705	8
120.388075	25.0705	7.9851140976
120.55945	25.0705	7.99881696701
120.730825	25.0705	8.00110530853
120.9022	25.0705	8.01654052734
121.073575	25.0705	8.0189037323
121.24495	25.0705	8.06000041962
121.416325	25.0705	8.05035209656
121.5877	25.0705	7.98999977112
120.2167	24.8999166667	7.98700284958
120.388075	24.8999166667	8.0098733902
120.55945	24.8999166667	7.98680400848
120.730825	24.8999166667	8.00931739807
120.9022	24.8999166667	7.98018550873
121.073575	24.8999166667	7.99537849426
121.24495	24.8999166667	7.98909139633
121.416325	24.8999166667	8.15186023712
121.5877	24.8999166667	8.38607215881
120.2167	24.7293333333	8.00403881073
120.388075	24.7293333333	7.990275383
120.55945	24.7293333333	8.010597229
120.730825	24.7293333333	7.99886083603
120.9022	24.7293333333	7.97767019272
121.073575	24.7293333333	7.9415769577
121.24495	24.7293333333	7.82458877563
121.416325	24.7293333333	8.12624835968
121.5877	24.7293333333	8.59865856171
120.2167	24.55875	7.9936466217
120.388075	24.55875	7.98516511917
120.55945	24.55875	7.99857711792
120.730825	24.55875	7.99302864075
120.9022	24.55875	7.99133253098
121.073575	24.55875	7.901699543
121.24495	24.55875	7.7162270546
121.416325	24.55875	7.81886959076
121.5877	24.55875	7.85873556137
120.2167	24.3881666667	7.99029254913
120.388075	24.3881666667	7.9770617485
120.55945	24.3881666667	7.97440624237
120.730825	24.3881666667	7.99918031693
120.9022	24.3881666667	7.99507474899
121.073575	24.3881666667	7.94945859909
121.24495	24.3881666667	7.88272619247
121.416325	24.3881666667	7.83515167236
121.5877	24.3881666667	7.7874250412
120.2167	24.2175833333	8
120.388075	24.2175833333	7.9887638092
120.55945	24.2175833333	7.99913549423
120.730825	24.2175833333	8.00364589691
120.9022	24.2175833333	7.99927282333
121.073575	24.2175833333	8.01067733765
121.24495	24.2175833333	8.06999969482
121.416325	24.2175833333	7.96446895599
121.5877	24.2175833333	7.9000005722
120.2167	24.047	7.97719955444
120.388075	24.047	8.02729511261
120.55945	24.047	8.02124214172
120.730825	24.047	7.99386787415
120.9022	24.047	8.00363540649
121.073575	24.047	8.01605415344
121.24495	24.047	8.03948783875
121.416325	24.047	8.01350307465
121.5877	24.047	7.996571064
120.2167	23.8764166667	8.0138053894
120.388075	23.8764166667	8.0174369812
120.55945	23.8764166667	7.99596166611
120.730825	23.8764166667	7.99682807922
120.9022	23.8764166667	8.01500225067
121.073575	23.8764166667	8.00692176819
121.24495	23.8764166667	8.02062606812
121.416325	23.8764166667	8.05178642273
121.5877	23.8764166667	8.06122589111
120.2167	23.7058333333	7.99931573868
120.388075	23.7058333333	7.98309230804
120.55945	23.7058333333	7.99483108521
120.730825	23.7058333333	7.99990320206
120.9022	23.7058333333	8.03151988983
121.073575	23.7058333333	8.01749515533
121.24495	23.7058333333	8.09757232666
121.416325	23.7058333333	8.06844806671
121.5877	23.7058333333	8.01672172546
120.2167	23.53525	7.98359727859
120.388075	23.53525	7.97096586227
120.55945	23.53525	7.98630809784
120.730825	23.53525	8.0252866745
120.9022	23.53525	7.9684305191
121.073575	23.53525	8.02398109436
121.24495	23.53525	8.0497713089
121.416325	23.53525	8.03368759155
121.5877	23.53525	8.00807476044
120.2167	23.3646666667	7.99225139618
120.388075	23.3646666667	7.99521541595
120.55945	23.3646666667	8.0067243576
120.730825	23.3646666667	7.99575138092
120.9022	23.3646666667	7.99772834778
121.073575	23.3646666667	8.00231266022
121.24495	23.3646666667	7.9829750061
121.416325	23.3646666667	8.00253582001
121.5877	23.3646666667	8.0000629425
120.2167	23.1940833333	8.00425052643
120.388075	23.1940833333	8.00199127197
120.55945	23.1940833333	8.00199794769
120.730825	23.1940833333	7.99736070633
120.9022	23.1940833333	8.01956176758
121.073575	23.1940833333	8.0316991806
121.24495	23.1940833333	8.05081939697
121.416325	23.1940833333	8.05828666687
121.5877	23.1940833333	8.00054645538
120.2167	23.0235	7.99899339676
120.388075	23.0235	7.99644613266
120.55945	23.0235	8.0011806488
120.730825	23.0235	8.00092029572
120.9022	23.0235	8.01732349396
121.073575	23.0235	8.05971240997
121.24495	23.0235	8.33312702179
121.416325	23.0235	8.21130466461
121.5877	23.0235	8.01947021484
120.2167	22.8529166667	8
120.388075	22.8529166667	8.00510978699
120.55945	22.8529166667	7.99996471405
120.730825	22.8529166667	8.00292396545
120.9022	22.8529166667	7.9145731926
121.073575	22.8529166667	7.87952470779
121.24495	22.8529166667	8.31000041962
121.416325	22.8529166667	8.26379108429
121.5877	22.8529166667	8.16658115387
120.2167	22.6823333333	8
120.388075	22.6823333333	8.03546524048
120.55945	22.6823333333	7.99993038177
120.730825	22.6823333333	8.00051498413
120.9022	22.6823333333	7.92800283432
121.073575	22.6823333333	7.82793140411
121.24495	22.6823333333	8.00912094116
121.416325	22.6823333333	8.06504058838
121.5877	22.6823333333	7.97493124008
120.2167	22.51175	8.01320362091
120.388075	22.51175	8.02274513245
120.55945	22.51175	7.98825502396
120.730825	22.51175	8.02652835846
120.9022	22.51175	7.9411110878
121.073575	22.51175	7.92297363281
121.24495	22.51175	8.00408554077
121.416325	22.51175	8.0274066925
121.5877	22.51175	7.97707891464
120.2167	22.3411666667	7.99909591675
120.388075	22.3411666667	8.00054836273
120.55945	22.3411666667	7.99849700928
120.730825	22.3411666667	8.00314617157
120.9022	22.3411666667	7.98101425171
121.073575	22.3411666667	8.01546573639
121.24495	22.3411666667	8.08192157745
121.416325	22.3411666667	8.05806159973
121.5877	22.3411666667	8.01401615143
120.2167	22.1705833333	8.01275253296
120.388075	22.1705833333	8.0039358139
120.55945	22.1705833333	8.00215148926
120.730825	22.1705833333	7.99716806412
120.9022	22.1705833333	7.99057531357
121.073575	22.1705833333	8.02919769287
121.24495	22.1705833333	8.05554580688
121.416325	22.1705833333	8.04620552063
121.5877	22.1705833333	8.01971817017
120.2167	22	8
120.388075	22	7.99940252304
120.55945	22	8.00080871582
120.730825	22	8.00083351135
120.9022	22	7.99513530731
121.073575	22	8.01071548462
121.24495	22	8.00104522705
121.416325	22	8.01040458679
121.5877	22	7.99974107742
