120.2167	25.0705	5.76000022888
120.388075	25.0705	5.76371669769
120.55945	25.0705	5.7593998909
120.730825	25.0705	5.76216316223
120.9022	25.0705	5.72568035126
121.073575	25.0705	5.60044527054
121.24495	25.0705	5.05000019073
121.416325	25.0705	5.37922525406
121.5877	25.0705	5.82000017166
120.2167	24.8999166667	5.75528621674
120.388075	24.8999166667	5.75559902191
120.55945	24.8999166667	5.72541332245
120.730825	24.8999166667	5.65229415894
120.9022	24.8999166667	5.66584062576
121.073575	24.8999166667	5.67457485199
121.24495	24.8999166667	5.63232755661
121.416325	24.8999166667	5.84025382996
121.5877	24.8999166667	6.12713003159
120.2167	24.7293333333	5.76480770111
120.388075	24.7293333333	5.75020217896
120.55945	24.7293333333	5.71225643158
120.730825	24.7293333333	5.53373527527
120.9022	24.7293333333	5.62992429733
121.073575	24.7293333333	5.79984140396
121.24495	24.7293333333	6.12534093857
121.416325	24.7293333333	6.23752164841
121.5877	24.7293333333	6.39605140686
120.2167	24.55875	5.75181055069
120.388075	24.55875	5.75902462006
120.55945	24.55875	5.70817136765
120.730825	24.55875	5.54827451706
120.9022	24.55875	5.67843723297
121.073575	24.55875	5.98077774048
121.24495	24.55875	6.47105932236
121.416325	24.55875	6.32814741135
121.5877	24.55875	6.27049970627
120.2167	24.3881666667	5.7419424057
120.388075	24.3881666667	5.81349658966
120.55945	24.3881666667	5.7580780983
120.730825	24.3881666667	5.5588145256
120.9022	24.3881666667	5.54209423065
121.073575	24.3881666667	5.62880992889
121.24495	24.3881666667	5.62032270432
121.416325	24.3881666667	5.95543289185
121.5877	24.3881666667	6.39874172211
120.2167	24.2175833333	5.76000022888
120.388075	24.2175833333	5.85167121887
120.55945	24.2175833333	5.84722757339
120.730825	24.2175833333	5.45019388199
120.9022	24.2175833333	5.46400928497
121.073575	24.2175833333	5.37639379501
121.24495	24.2175833333	4.73000001907
121.416325	24.2175833333	5.62464046478
121.5877	24.2175833333	6.65000009537
120.2167	24.047	5.91271591187
120.388075	24.047	5.91321897507
120.55945	24.047	5.71045875549
120.730825	24.047	5.39726305008
120.9022	24.047	5.48017883301
121.073575	24.047	5.55982398987
121.24495	24.047	5.27538251877
121.416325	24.047	5.85866451263
121.5877	24.047	6.67615699768
120.2167	23.8764166667	6.02742338181
120.388075	23.8764166667	5.87224388123
120.55945	23.8764166667	5.73422288895
120.730825	23.8764166667	5.18496322632
120.9022	23.8764166667	5.53961420059
121.073575	23.8764166667	6.03823232651
121.24495	23.8764166667	5.80937004089
121.416325	23.8764166667	6.21847438812
121.5877	23.8764166667	6.88000011444
120.2167	23.7058333333	5.82388019562
120.388075	23.7058333333	5.76897907257
120.55945	23.7058333333	5.57432317734
120.730825	23.7058333333	5.30555057526
120.9022	23.7058333333	5.6158747673
121.073575	23.7058333333	5.94228839874
121.24495	23.7058333333	6.0982708931
121.416325	23.7058333333	6.41774082184
121.5877	23.7058333333	6.88000011444
120.2167	23.53525	5.55946683884
120.388075	23.53525	5.66887998581
120.55945	23.53525	5.66053390503
120.730825	23.53525	5.68832921982
120.9022	23.53525	5.89540052414
121.073575	23.53525	6.08065319061
121.24495	23.53525	6.18576097488
121.416325	23.53525	6.45223712921
121.5877	23.53525	6.83576917648
120.2167	23.3646666667	5.3647518158
120.388075	23.3646666667	5.57237148285
120.55945	23.3646666667	5.77048110962
120.730825	23.3646666667	5.95124483109
120.9022	23.3646666667	6.05528306961
121.073575	23.3646666667	6.19471597672
121.24495	23.3646666667	6.0923666954
121.416325	23.3646666667	6.36173820496
121.5877	23.3646666667	6.81093358994
120.2167	23.1940833333	5.50578260422
120.388075	23.1940833333	5.4297170639
120.55945	23.1940833333	5.56727218628
120.730825	23.1940833333	5.56907320023
120.9022	23.1940833333	5.93393516541
121.073575	23.1940833333	6.0908331871
121.24495	23.1940833333	5.67150354385
121.416325	23.1940833333	6.12622880936
121.5877	23.1940833333	6.79203748703
120.2167	23.0235	5.03722381592
120.388075	23.0235	4.87968206406
120.55945	23.0235	4.83875322342
120.730825	23.0235	5.76385831833
120.9022	23.0235	5.92615509033
121.073575	23.0235	5.77703237534
121.24495	23.0235	5.17639732361
121.416325	23.0235	5.91137599945
121.5877	23.0235	6.80330085754
120.2167	22.8529166667	4.92999982834
120.388075	22.8529166667	4.75650930405
120.55945	22.8529166667	4.97879362106
120.730825	22.8529166667	6.61437606812
120.9022	22.8529166667	5.98088645935
121.073575	22.8529166667	5.10525465012
121.24495	22.8529166667	6.03999996185
121.416325	22.8529166667	5.87106466293
121.5877	22.8529166667	5.80576896667
120.2167	22.6823333333	4.71999979019
120.388075	22.6823333333	4.77855157852
120.55945	22.6823333333	5.09455156326
120.730825	22.6823333333	6.06061506271
120.9022	22.6823333333	5.98251628876
121.073575	22.6823333333	5.77276515961
121.24495	22.6823333333	5.3149433136
121.416325	22.6823333333	5.46341085434
121.5877	22.6823333333	5.55699872971
120.2167	22.51175	4.64146852493
120.388075	22.51175	4.86217308044
120.55945	22.51175	5.11831045151
120.730825	22.51175	5.40298175812
120.9022	22.51175	5.52030515671
121.073575	22.51175	5.48558855057
121.24495	22.51175	5.35173892975
121.416325	22.51175	5.52936458588
121.5877	22.51175	5.73391580582
120.2167	22.3411666667	4.75419092178
120.388075	22.3411666667	5.04811096191
120.55945	22.3411666667	5.24264764786
120.730825	22.3411666667	5.02214956284
120.9022	22.3411666667	5.22492218018
121.073575	22.3411666667	5.29929113388
121.24495	22.3411666667	5.54627418518
121.416325	22.3411666667	5.85010623932
121.5877	22.3411666667	6.14454603195
120.2167	22.1705833333	5.22917699814
120.388075	22.1705833333	5.404088974
120.55945	22.1705833333	5.53186321259
120.730825	22.1705833333	5.5047082901
120.9022	22.1705833333	5.58719348907
121.073575	22.1705833333	5.74487543106
121.24495	22.1705833333	6.07820510864
121.416325	22.1705833333	6.31045341492
121.5877	22.1705833333	6.5060377121
120.2167	22	5.76000022888
120.388075	22	5.82778787613
120.55945	22	5.96911478043
120.730825	22	6.14657688141
120.9022	22	6.11781311035
121.073575	22	6.28688335419
121.24495	22	6.73206424713
121.416325	22	6.7962141037
121.5877	22	6.84529924393
