120.2167	25.0705	6.28000020981
120.388075	25.0705	6.24983358383
120.55945	25.0705	6.27043581009
120.730825	25.0705	6.28840780258
120.9022	25.0705	6.21959924698
121.073575	25.0705	6.05034685135
121.24495	25.0705	5.67000007629
121.416325	25.0705	6.35797548294
121.5877	25.0705	7.28000020981
120.2167	24.8999166667	6.24180936813
120.388075	24.8999166667	6.26371049881
120.55945	24.8999166667	6.19873380661
120.730825	24.8999166667	6.1450047493
120.9022	24.8999166667	6.28648376465
121.073575	24.8999166667	6.39799356461
121.24495	24.8999166667	6.21882724762
121.416325	24.8999166667	6.32629060745
121.5877	24.8999166667	6.58037805557
120.2167	24.7293333333	6.28279972076
120.388075	24.7293333333	6.31202459335
120.55945	24.7293333333	6.24786520004
120.730825	24.7293333333	6.06804227829
120.9022	24.7293333333	6.39083480835
121.073575	24.7293333333	6.68976974487
121.24495	24.7293333333	6.50904417038
121.416325	24.7293333333	6.24770259857
121.5877	24.7293333333	6.05705213547
120.2167	24.55875	6.30149650574
120.388075	24.55875	6.34626150131
120.55945	24.55875	6.50284814835
120.730825	24.55875	6.74406671524
120.9022	24.55875	6.44406032562
121.073575	24.55875	6.14234018326
121.24495	24.55875	6.08388900757
121.416325	24.55875	6.16412830353
121.5877	24.55875	6.25625133514
120.2167	24.3881666667	6.28288078308
120.388075	24.3881666667	6.29318094254
120.55945	24.3881666667	6.35899496078
120.730825	24.3881666667	6.50851821899
120.9022	24.3881666667	6.27366447449
121.073575	24.3881666667	5.98751544952
121.24495	24.3881666667	6.03801584244
121.416325	24.3881666667	6.21680641174
121.5877	24.3881666667	6.42354011536
120.2167	24.2175833333	6.36000013351
120.388075	24.2175833333	6.28379535675
120.55945	24.2175833333	6.11871433258
120.730825	24.2175833333	6.30291509628
120.9022	24.2175833333	6.09537696838
121.073575	24.2175833333	5.86193847656
121.24495	24.2175833333	6.09000015259
121.416325	24.2175833333	6.36926317215
121.5877	24.2175833333	6.67999982834
120.2167	24.047	6.57784891129
120.388075	24.047	6.44117832184
120.55945	24.047	6.35467243195
120.730825	24.047	6.37691783905
120.9022	24.047	6.1975402832
121.073575	24.047	5.94249343872
121.24495	24.047	6.10264635086
121.416325	24.047	6.53202533722
121.5877	24.047	7.0368180275
120.2167	23.8764166667	6.72230243683
120.388075	23.8764166667	6.64756965637
120.55945	23.8764166667	6.59630680084
120.730825	23.8764166667	6.64482688904
120.9022	23.8764166667	6.18325042725
121.073575	23.8764166667	5.90861558914
121.24495	23.8764166667	6.01478481293
121.416325	23.8764166667	6.62861442566
121.5877	23.8764166667	7.40000009537
120.2167	23.7058333333	6.85070419312
120.388075	23.7058333333	6.71168422699
120.55945	23.7058333333	6.69370603561
120.730825	23.7058333333	6.591173172
120.9022	23.7058333333	6.11541891098
121.073575	23.7058333333	5.6987195015
121.24495	23.7058333333	5.84147119522
121.416325	23.7058333333	6.55370998383
121.5877	23.7058333333	7.40000009537
120.2167	23.53525	6.21895551682
120.388075	23.53525	6.43725824356
120.55945	23.53525	6.472219944
120.730825	23.53525	6.29031658173
120.9022	23.53525	5.98877573013
121.073575	23.53525	5.74928092957
121.24495	23.53525	5.92769479752
121.416325	23.53525	6.43197631836
121.5877	23.53525	6.94192504883
120.2167	23.3646666667	5.59060668945
120.388075	23.3646666667	6.13425207138
120.55945	23.3646666667	6.38985443115
120.730825	23.3646666667	6.08131217957
120.9022	23.3646666667	5.92046689987
121.073575	23.3646666667	5.83682537079
121.24495	23.3646666667	6.13970756531
121.416325	23.3646666667	6.51010704041
121.5877	23.3646666667	6.71271133423
120.2167	23.1940833333	6.03221845627
120.388075	23.1940833333	6.22061157227
120.55945	23.1940833333	6.34184408188
120.730825	23.1940833333	6.33595657349
120.9022	23.1940833333	6.09434461594
121.073575	23.1940833333	6.1117773056
121.24495	23.1940833333	6.72421121597
121.416325	23.1940833333	7.0127530098
121.5877	23.1940833333	7.23494911194
120.2167	23.0235	6.63537883759
120.388075	23.0235	6.32345676422
120.55945	23.0235	6.12103700638
120.730825	23.0235	6.30938148499
120.9022	23.0235	6.23581075668
121.073575	23.0235	6.436398983
121.24495	23.0235	7.3252248764
121.416325	23.0235	7.29475164413
121.5877	23.0235	7.0464091301
120.2167	22.8529166667	5.59999990463
120.388075	22.8529166667	5.99332237244
120.55945	22.8529166667	6.17090272903
120.730825	22.8529166667	5.68776321411
120.9022	22.8529166667	6.06645727158
121.073575	22.8529166667	6.70936536789
121.24495	22.8529166667	7.40000009537
121.416325	22.8529166667	7.36953353882
121.5877	22.8529166667	7.21116733551
120.2167	22.6823333333	5.48000001907
120.388075	22.6823333333	5.79477310181
120.55945	22.6823333333	6.0268073082
120.730825	22.6823333333	5.42777776718
120.9022	22.6823333333	6.05646038055
121.073575	22.6823333333	6.9648733139
121.24495	22.6823333333	7.39748239517
121.416325	22.6823333333	7.03720664978
121.5877	22.6823333333	6.38140916824
120.2167	22.51175	5.63752555847
120.388075	22.51175	5.61983394623
120.55945	22.51175	5.53927373886
120.730825	22.51175	5.4668006897
120.9022	22.51175	6.12615776062
121.073575	22.51175	6.97236680984
121.24495	22.51175	7.19719457626
121.416325	22.51175	6.84056949615
121.5877	22.51175	6.26735115051
120.2167	22.3411666667	5.9406619072
120.388075	22.3411666667	5.61578321457
120.55945	22.3411666667	5.24082756042
120.730825	22.3411666667	5.44855833054
120.9022	22.3411666667	6.18700170517
121.073575	22.3411666667	7.02827119827
121.24495	22.3411666667	7.08793210983
121.416325	22.3411666667	6.78226709366
121.5877	22.3411666667	6.28992605209
120.2167	22.1705833333	6.08023023605
120.388075	22.1705833333	5.94122171402
120.55945	22.1705833333	5.80585002899
120.730825	22.1705833333	5.85399246216
120.9022	22.1705833333	6.12617826462
121.073575	22.1705833333	6.51734209061
121.24495	22.1705833333	6.89133119583
121.416325	22.1705833333	6.9093170166
121.5877	22.1705833333	6.77425861359
120.2167	22	6.28000020981
120.388075	22	6.37519788742
120.55945	22	6.50921058655
120.730825	22	6.31365680695
120.9022	22	6.01264095306
121.073575	22	5.90782499313
121.24495	22	6.78089237213
121.416325	22	7.0958943367
121.5877	22	7.26134824753
