120.2167	25.0705	4.86000013351
120.388075	25.0705	4.88609743118
120.55945	25.0705	4.86094665527
120.730825	25.0705	4.86105442047
120.9022	25.0705	4.88968324661
121.073575	25.0705	4.77810049057
121.24495	25.0705	4.13999986649
121.416325	25.0705	4.548371315
121.5877	25.0705	5.03999996185
120.2167	24.8999166667	4.88165855408
120.388075	24.8999166667	4.87444829941
120.55945	24.8999166667	4.86634111404
120.730825	24.8999166667	4.84423351288
120.9022	24.8999166667	4.86508607864
121.073575	24.8999166667	4.9456114769
121.24495	24.8999166667	5.04661893845
121.416325	24.8999166667	4.9230132103
121.5877	24.8999166667	4.7927069664
120.2167	24.7293333333	4.8580904007
120.388075	24.7293333333	4.84663438797
120.55945	24.7293333333	4.82601690292
120.730825	24.7293333333	4.70471906662
120.9022	24.7293333333	4.75661611557
121.073575	24.7293333333	4.97882699966
121.24495	24.7293333333	5.71691083908
121.416325	24.7293333333	5.16463136673
121.5877	24.7293333333	4.61041784286
120.2167	24.55875	4.85238981247
120.388075	24.55875	4.8317732811
120.55945	24.55875	4.69861125946
120.730825	24.55875	4.28336715698
120.9022	24.55875	4.61640167236
121.073575	24.55875	4.95013046265
121.24495	24.55875	4.66131877899
121.416325	24.55875	4.98194026947
121.5877	24.55875	5.24545621872
120.2167	24.3881666667	4.84403753281
120.388075	24.3881666667	4.83653306961
120.55945	24.3881666667	4.65459489822
120.730825	24.3881666667	4.24549293518
120.9022	24.3881666667	4.64144182205
121.073575	24.3881666667	5.08901596069
121.24495	24.3881666667	4.81928443909
121.416325	24.3881666667	5.16848897934
121.5877	24.3881666667	5.67809391022
120.2167	24.2175833333	4.86000013351
120.388075	24.2175833333	4.8421292305
120.55945	24.2175833333	4.72625350952
120.730825	24.2175833333	4.02167606354
120.9022	24.2175833333	4.74433612823
121.073575	24.2175833333	5.54205989838
121.24495	24.2175833333	5
121.416325	24.2175833333	5.36239767075
121.5877	24.2175833333	5.96999979019
120.2167	24.047	4.99019670486
120.388075	24.047	4.76598930359
120.55945	24.047	4.46791553497
120.730825	24.047	4.14582157135
120.9022	24.047	4.66666126251
121.073575	24.047	5.31332683563
121.24495	24.047	5.42369556427
121.416325	24.047	5.31980800629
121.5877	24.047	5.18075942993
120.2167	23.8764166667	5.1375374794
120.388075	23.8764166667	4.64426708221
120.55945	23.8764166667	4.30981492996
120.730825	23.8764166667	4.06175994873
120.9022	23.8764166667	4.67159080505
121.073575	23.8764166667	5.27707338333
121.24495	23.8764166667	5.83619642258
121.416325	23.8764166667	5.3093047142
121.5877	23.8764166667	4.53197622299
120.2167	23.7058333333	5.10844087601
120.388075	23.7058333333	4.48729324341
120.55945	23.7058333333	4.01678514481
120.730825	23.7058333333	4.48933506012
120.9022	23.7058333333	5.14627790451
121.073575	23.7058333333	5.75379896164
121.24495	23.7058333333	5.60268592834
121.416325	23.7058333333	5.59399795532
121.5877	23.7058333333	5.75982141495
120.2167	23.53525	4.86309051514
120.388075	23.53525	4.4302315712
120.55945	23.53525	4.21154880524
120.730825	23.53525	4.87437391281
120.9022	23.53525	5.39843797684
121.073575	23.53525	5.60485744476
121.24495	23.53525	5.2500834465
121.416325	23.53525	5.46014118195
121.5877	23.53525	5.98000001907
120.2167	23.3646666667	4.75503778458
120.388075	23.3646666667	4.33018302917
120.55945	23.3646666667	4.18211984634
120.730825	23.3646666667	5.17134714127
120.9022	23.3646666667	5.50733947754
121.073575	23.3646666667	5.48644638062
121.24495	23.3646666667	4.55276918411
121.416325	23.3646666667	4.93051290512
121.5877	23.3646666667	5.78763628006
120.2167	23.1940833333	4.46794557571
120.388075	23.1940833333	4.22493076324
120.55945	23.1940833333	4.2923784256
120.730825	23.1940833333	4.57913732529
120.9022	23.1940833333	5.29116916656
121.073575	23.1940833333	5.50354957581
121.24495	23.1940833333	4.08491897583
121.416325	23.1940833333	4.16704702377
121.5877	23.1940833333	4.45918369293
120.2167	23.0235	3.84948396683
120.388075	23.0235	3.80846977234
120.55945	23.0235	3.83295559883
120.730825	23.0235	4.27650260925
120.9022	23.0235	4.99353456497
121.073575	23.0235	5.10652208328
121.24495	23.0235	3.85705447197
121.416325	23.0235	4.1582942009
121.5877	23.0235	4.80171298981
120.2167	22.8529166667	4.11000013351
120.388075	22.8529166667	3.818608284
120.55945	22.8529166667	4.03872489929
120.730825	22.8529166667	5.82169294357
120.9022	22.8529166667	5.11534500122
121.073575	22.8529166667	4.06642055511
121.24495	22.8529166667	4.30999994278
121.416325	22.8529166667	4.40672063828
121.5877	22.8529166667	4.83619403839
120.2167	22.6823333333	3.8599998951
120.388075	22.6823333333	3.8585755825
120.55945	22.6823333333	4.11713600159
120.730825	22.6823333333	5.81236362457
120.9022	22.6823333333	5.00135087967
121.073575	22.6823333333	3.74000000954
121.24495	22.6823333333	3.79112768173
121.416325	22.6823333333	4.18727588654
121.5877	22.6823333333	4.57883262634
120.2167	22.51175	3.79436254501
120.388075	22.51175	4.36379957199
120.55945	22.51175	5.03812074661
120.730825	22.51175	5.64297914505
120.9022	22.51175	5.05258178711
121.073575	22.51175	4.19533157349
121.24495	22.51175	4.09366893768
121.416325	22.51175	4.30555963516
121.5877	22.51175	4.57450675964
120.2167	22.3411666667	3.85014915466
120.388075	22.3411666667	4.85186243057
120.55945	22.3411666667	5.85662126541
120.730825	22.3411666667	5.79477214813
120.9022	22.3411666667	5.22986555099
121.073575	22.3411666667	4.58412790298
121.24495	22.3411666667	4.53721666336
121.416325	22.3411666667	4.62054491043
121.5877	22.3411666667	4.83000516891
120.2167	22.1705833333	4.40513134003
120.388075	22.1705833333	4.96571302414
120.55945	22.1705833333	5.46892881393
120.730825	22.1705833333	5.54330587387
120.9022	22.1705833333	5.33849334717
121.073575	22.1705833333	4.99697303772
121.24495	22.1705833333	4.71651029587
121.416325	22.1705833333	4.91990232468
121.5877	22.1705833333	5.33177280426
120.2167	22	4.86000013351
120.388075	22	4.92987060547
120.55945	22	4.95185184479
120.730825	22	5.19911623001
120.9022	22	5.38844251633
121.073575	22	5.34214925766
121.24495	22	4.68178272247
121.416325	22	5.16256093979
121.5877	22	5.95981264114
